101
0 0 0 
-0.544322 -0.59259 -0.59376 
-0.759007 -0.251469 -0.60056 
0.0654395 -0.0312706 -0.997366 
0.774384 -0.623687 -0.10651 
0.1273 0.154453 0.979765 
-0.677309 0.375975 -0.632373 
0.76207 -0.409031 -0.501938 
0.0365904 0.996525 0.0748278 
0.659921 -0.532256 0.530291 
0.592118 -0.794863 0.132621 
0.538066 -0.521323 0.66235 
-0.449602 -0.727347 0.518483 
0.339663 -0.230944 -0.911753 
-0.846308 0.433132 0.310097 
0.28609 -0.909108 0.302779 
-0.00791222 -0.756549 0.653889 
0.738225 -0.673658 0.0347711 
-0.307612 0.897313 -0.316549 
0.487975 -0.823873 0.288293 
0.667214 -0.66334 0.33883 
-0.704236 0.423752 0.569636 
-0.644884 -0.255723 0.720229 
0.34229 -0.826927 -0.446127 
0.216345 -0.111913 0.969882 
0.939102 0.340269 0.0479978 
0.774311 0.129913 0.619326 
-0.852632 -0.282842 -0.439339 
0.510284 0.578354 -0.636488 
-0.510269 0.571315 0.642826 
-0.765451 -0.575756 0.287385 
0.146412 -0.51804 -0.842733 
-0.0718017 -0.964322 -0.25481 
-0.588833 -0.160371 0.792185 
0.541846 0.0616102 0.838217 
-0.0866545 0.768723 -0.633685 
0.596252 -0.137874 -0.790869 
-0.0636526 0.481646 0.874051 
0.554258 -0.586145 0.590959 
0.252002 0.653193 -0.714026 
0.230587 -0.744789 0.626194 
-0.262701 0.538237 0.800805 
-0.0928789 0.651879 0.752614 
-0.058252 -0.217389 -0.974345 
0.519077 0.19258 -0.83275 
0.781358 0.0492245 -0.622139 
-0.226216 0.894207 -0.386289 
-0.26294 0.666553 0.697546 
0.917115 0.393469 0.0638896 
-0.743593 0.457896 0.487237 
-0.706702 -0.478791 0.520895 
-0.485732 -0.812282 -0.322896 
-0.306101 -0.928816 -0.208815 
-0.449445 -0.824199 -0.344521 
0.0470106 -0.515566 -0.855559 
0.582043 0.813075 -0.011637 
0.0818204 -0.650778 -0.754846 
0.4736 -0.232109 -0.849605 
0.588268 -0.793268 0.157059 
-0.922558 0.255353 -0.289276 
-0.498304 -0.551786 0.66875 
0.692091 -0.479174 -0.539817 
0.366697 0.803956 0.468175 
0.741737 0.544703 -0.391313 
-0.460971 0.515667 0.722214 
0.914541 -0.246806 0.320469 
-0.788626 -0.390953 0.47458 
0.787176 0.0851839 0.610817 
-0.121405 -0.565999 -0.815417 
-0.292959 0.823904 0.485136 
0.904499 0.301867 0.301262 
-0.78837 -0.317669 -0.52684 
0.592713 0.545246 -0.592789 
0.812229 0.194071 -0.550109 
-0.62618 0.482104 0.612759 
-0.831839 -0.537147 -0.139707 
-0.478957 -0.742259 -0.46867 
-0.196332 0.965071 0.17347 
0.379834 -0.632159 0.675352 
-0.409023 -0.888954 -0.206061 
0.718629 -0.0938329 -0.689034 
0.639294 0.187511 0.74575 
0.5524 0.299312 -0.777989 
-0.645994 -0.584192 -0.491337 
-0.785921 0.592632 -0.176393 
0.271689 0.648289 0.711271 
-0.669909 -0.697292 0.254964 
0.503313 0.0463265 -0.862862 
0.880422 0.13541 0.454446 
-0.589854 -0.594509 0.546472 
-0.0891712 -0.0469078 -0.994911 
0.668103 0.00785592 -0.744028 
0.620997 0.430081 -0.655281 
-0.561081 0.551706 -0.617098 
-0.372588 -0.516743 -0.770815 
-0.910543 0.389876 -0.137507 
0.222495 0.971363 -0.0833691 
0.780014 -0.372043 -0.503153 
-0.798336 -0.393383 0.45597 
-0.480539 0.443656 0.756473 
-0.920905 -0.255753 0.294149 
